-0.184062 0.464888 -0.63 0.368125 -0.929776 0 0.00376991
-0.240877 0.438153 -0.63 0.481754 -0.876307 0 0.00376991
-0.293893 0.404508 -0.63 0.587785 -0.809017 0 0.00376991
-0.342274 0.364484 -0.63 0.684547 -0.728969 0 0.00376991
-0.385257 0.318712 -0.63 0.770513 -0.637424 0 0.00376991
-0.422164 0.267913 -0.63 0.844328 -0.535827 0 0.00376991
-0.452414 0.21289 -0.63 0.904827 -0.425779 0 0.00376991
-0.475528 0.154508 -0.63 0.951057 -0.309017 0 0.00376991
-0.491144 0.0936907 -0.63 0.982287 -0.187381 0 0.00376991
-0.499013 0.0313953 -0.63 0.998027 -0.0627905 0 0.00376991
-0.499013 -0.0313953 -0.63 0.998027 0.0627905 0 0.00376991
-0.491144 -0.0936907 -0.63 0.982287 0.187381 0 0.00376991
-0.475528 -0.154508 -0.63 0.951057 0.309017 0 0.00376991
-0.452414 -0.21289 -0.63 0.904827 0.425779 0 0.00376991
-0.422164 -0.267913 -0.63 0.844328 0.535827 0 0.00376991
-0.385257 -0.318712 -0.63 0.770513 0.637424 0 0.00376991
-0.342274 -0.364484 -0.63 0.684547 0.728969 0 0.00376991
-0.293893 -0.404508 -0.63 0.587785 0.809017 0 0.00376991
-0.240877 -0.438153 -0.63 0.481754 0.876307 0 0.00376991
-0.184062 -0.464888 -0.63 0.368125 0.929776 0 0.00376991
-0.124345 -0.484292 -0.63 0.24869 0.968583 0 0.00376991
-0.0626666 -0.496057 -0.63 0.125333 0.992115 0 0.00376991
-9.18485e-17 -0.5 -0.63 1.83697e-16 1 0 0.00376991
0.0626666 -0.496057 -0.63 -0.125333 0.992115 0 0.00376991
0.124345 -0.484292 -0.63 -0.24869 0.968583 0 0.00376991
0.184062 -0.464888 -0.63 -0.368125 0.929776 0 0.00376991
0.240877 -0.438153 -0.63 -0.481754 0.876307 0 0.00376991
0.293893 -0.404508 -0.63 -0.587785 0.809017 0 0.00376991
0.342274 -0.364484 -0.63 -0.684547 0.728969 0 0.00376991
0.385257 -0.318712 -0.63 -0.770513 0.637424 0 0.00376991
0.422164 -0.267913 -0.63 -0.844328 0.535827 0 0.00376991
0.452414 -0.21289 -0.63 -0.904827 0.425779 0 0.00376991
0.475528 -0.154508 -0.63 -0.951057 0.309017 0 0.00376991
0.491144 -0.0936907 -0.63 -0.982287 0.187381 0 0.00376991
0.499013 -0.0313953 -0.63 -0.998027 0.0627905 0 0.00376991
0.499013 0.0313953 -0.69 -0.998027 -0.0627905 0 0.00376991
0.491144 0.0936907 -0.69 -0.982287 -0.187381 0 0.00376991
0.475528 0.154508 -0.69 -0.951057 -0.309017 0 0.00376991
0.452414 0.21289 -0.69 -0.904827 -0.425779 0 0.00376991
0.422164 0.267913 -0.69 -0.844328 -0.535827 0 0.00376991
0.385257 0.318712 -0.69 -0.770513 -0.637424 0 0.00376991
0.342274 0.364484 -0.69 -0.684547 -0.728969 0 0.00376991
0.293893 0.404508 -0.69 -0.587785 -0.809017 0 0.00376991
0.240877 0.438153 -0.69 -0.481754 -0.876307 0 0.00376991
0.184062 0.464888 -0.69 -0.368125 -0.929776 0 0.00376991
0.124345 0.484292 -0.69 -0.24869 -0.968583 0 0.00376991
0.0626666 0.496057 -0.69 -0.125333 -0.992115 0 0.00376991
-8.04061e-17 0.5 -0.69 1.60812e-16 -1 0 0.00376991
-0.0626666 0.496057 -0.69 0.125333 -0.992115 0 0.00376991
-0.124345 0.484292 -0.69 0.24869 -0.968583 0 0.00376991
-0.184062 0.464888 -0.69 0.368125 -0.929776 0 0.00376991
-0.240877 0.438153 -0.69 0.481754 -0.876307 0 0.00376991
-0.293893 0.404508 -0.69 0.587785 -0.809017 0 0.00376991
-0.342274 0.364484 -0.69 0.684547 -0.728969 0 0.00376991
-0.385257 0.318712 -0.69 0.770513 -0.637424 0 0.00376991
-0.422164 0.267913 -0.69 0.844328 -0.535827 0 0.00376991
-0.452414 0.21289 -0.69 0.904827 -0.425779 0 0.00376991
-0.475528 0.154508 -0.69 0.951057 -0.309017 0 0.00376991
-0.491144 0.0936907 -0.69 0.982287 -0.187381 0 0.00376991
-0.499013 0.0313953 -0.69 0.998027 -0.0627905 0 0.00376991
-0.499013 -0.0313953 -0.69 0.998027 0.0627905 0 0.00376991
-0.491144 -0.0936907 -0.69 0.982287 0.187381 0 0.00376991
-0.475528 -0.154508 -0.69 0.951057 0.309017 0 0.00376991
-0.452414 -0.21289 -0.69 0.904827 0.425779 0 0.00376991
-0.422164 -0.267913 -0.69 0.844328 0.535827 0 0.00376991
-0.385257 -0.318712 -0.69 0.770513 0.637424 0 0.00376991
-0.342274 -0.364484 -0.69 0.684547 0.728969 0 0.00376991
-0.293893 -0.404508 -0.69 0.587785 0.809017 0 0.00376991
-0.240877 -0.438153 -0.69 0.481754 0.876307 0 0.00376991
-0.184062 -0.464888 -0.69 0.368125 0.929776 0 0.00376991
-0.124345 -0.484292 -0.69 0.24869 0.968583 0 0.00376991
-0.0626666 -0.496057 -0.69 0.125333 0.992115 0 0.00376991
-9.18485e-17 -0.5 -0.69 1.83697e-16 1 0 0.00376991
0.0626666 -0.496057 -0.69 -0.125333 0.992115 0 0.00376991
0.124345 -0.484292 -0.69 -0.24869 0.968583 0 0.00376991
0.184062 -0.464888 -0.69 -0.368125 0.929776 0 0.00376991
0.240877 -0.438153 -0.69 -0.481754 0.876307 0 0.00376991
0.293893 -0.404508 -0.69 -0.587785 0.809017 0 0.00376991
0.342274 -0.364484 -0.69 -0.684547 0.728969 0 0.00376991
0.385257 -0.318712 -0.69 -0.770513 0.637424 0 0.00376991
0.422164 -0.267913 -0.69 -0.844328 0.535827 0 0.00376991
0.452414 -0.21289 -0.69 -0.904827 0.425779 0 0.00376991
0.475528 -0.154508 -0.69 -0.951057 0.309017 0 0.00376991
0.491144 -0.0936907 -0.69 -0.982287 0.187381 0 0.00376991
0.499013 -0.0313953 -0.69 -0.998027 0.0627905 0 0.00376991
0.499013 0.0313953 -0.75 -0.998027 -0.0627905 0 0.00376991
0.491144 0.0936907 -0.75 -0.982287 -0.187381 0 0.00376991
0.475528 0.154508 -0.75 -0.951057 -0.309017 0 0.00376991
0.452414 0.21289 -0.75 -0.904827 -0.425779 0 0.00376991
0.422164 0.267913 -0.75 -0.844328 -0.535827 0 0.00376991
0.385257 0.318712 -0.75 -0.770513 -0.637424 0 0.00376991
0.342274 0.364484 -0.75 -0.684547 -0.728969 0 0.00376991
0.293893 0.404508 -0.75 -0.587785 -0.809017 0 0.00376991
0.240877 0.438153 -0.75 -0.481754 -0.876307 0 0.00376991
0.184062 0.464888 -0.75 -0.368125 -0.929776 0 0.00376991
0.124345 0.484292 -0.75 -0.24869 -0.968583 0 0.00376991
0.0626666 0.496057 -0.75 -0.125333 -0.992115 0 0.00376991
-8.04061e-17 0.5 -0.75 1.60812e-16 -1 0 0.00376991
-0.0626666 0.496057 -0.75 0.125333 -0.992115 0 0.00376991
-0.124345 0.484292 -0.75 0.24869 -0.968583 0 0.00376991
-0.184062 0.464888 -0.75 0.368125 -0.929776 0 0.00376991
-0.240877 0.438153 -0.75 0.481754 -0.876307 0 0.00376991
-0.293893 0.404508 -0.75 0.587785 -0.809017 0 0.00376991
-0.342274 0.364484 -0.75 0.684547 -0.728969 0 0.00376991
-0.385257 0.318712 -0.75 0.770513 -0.637424 0 0.00376991
-0.422164 0.267913 -0.75 0.844328 -0.535827 0 0.00376991
-0.452414 0.21289 -0.75 0.904827 -0.425779 0 0.00376991
-0.475528 0.154508 -0.75 0.951057 -0.309017 0 0.00376991
-0.491144 0.0936907 -0.75 0.982287 -0.187381 0 0.00376991
-0.499013 0.0313953 -0.75 0.998027 -0.0627905 0 0.00376991
-0.499013 -0.0313953 -0.75 0.998027 0.0627905 0 0.00376991
-0.491144 -0.0936907 -0.75 0.982287 0.187381 0 0.00376991
-0.475528 -0.154508 -0.75 0.951057 0.309017 0 0.00376991
-0.452414 -0.21289 -0.75 0.904827 0.425779 0 0.00376991
-0.422164 -0.267913 -0.75 0.844328 0.535827 0 0.00376991
-0.385257 -0.318712 -0.75 0.770513 0.637424 0 0.00376991
-0.342274 -0.364484 -0.75 0.684547 0.728969 0 0.00376991
-0.293893 -0.404508 -0.75 0.587785 0.809017 0 0.00376991
-0.240877 -0.438153 -0.75 0.481754 0.876307 0 0.00376991
-0.184062 -0.464888 -0.75 0.368125 0.929776 0 0.00376991
-0.124345 -0.484292 -0.75 0.24869 0.968583 0 0.00376991
-0.0626666 -0.496057 -0.75 0.125333 0.992115 0 0.00376991
-9.18485e-17 -0.5 -0.75 1.83697e-16 1 0 0.00376991
0.0626666 -0.496057 -0.75 -0.125333 0.992115 0 0.00376991
0.124345 -0.484292 -0.75 -0.24869 0.968583 0 0.00376991
0.184062 -0.464888 -0.75 -0.368125 0.929776 0 0.00376991
0.240877 -0.438153 -0.75 -0.481754 0.876307 0 0.00376991
0.293893 -0.404508 -0.75 -0.587785 0.809017 0 0.00376991
0.342274 -0.364484 -0.75 -0.684547 0.728969 0 0.00376991
0.385257 -0.318712 -0.75 -0.770513 0.637424 0 0.00376991
0.422164 -0.267913 -0.75 -0.844328 0.535827 0 0.00376991
0.452414 -0.21289 -0.75 -0.904827 0.425779 0 0.00376991
0.475528 -0.154508 -0.75 -0.951057 0.309017 0 0.00376991
0.491144 -0.0936907 -0.75 -0.982287 0.187381 0 0.00376991
0.499013 -0.0313953 -0.75 -0.998027 0.0627905 0 0.00376991
0.499013 0.0313953 -0.81 -0.998027 -0.0627905 0 0.00376991
0.491144 0.0936907 -0.81 -0.982287 -0.187381 0 0.00376991
0.475528 0.154508 -0.81 -0.951057 -0.309017 0 0.00376991
0.452414 0.21289 -0.81 -0.904827 -0.425779 0 0.00376991
0.422164 0.267913 -0.81 -0.844328 -0.535827 0 0.00376991
0.385257 0.318712 -0.81 -0.770513 -0.637424 0 0.00376991
0.342274 0.364484 -0.81 -0.684547 -0.728969 0 0.00376991
0.293893 0.404508 -0.81 -0.587785 -0.809017 0 0.00376991
0.240877 0.438153 -0.81 -0.481754 -0.876307 0 0.00376991
0.184062 0.464888 -0.81 -0.368125 -0.929776 0 0.00376991
0.124345 0.484292 -0.81 -0.24869 -0.968583 0 0.00376991
0.0626666 0.496057 -0.81 -0.125333 -0.992115 0 0.00376991
-8.04061e-17 0.5 -0.81 1.60812e-16 -1 0 0.00376991
-0.0626666 0.496057 -0.81 0.125333 -0.992115 0 0.00376991
-0.124345 0.484292 -0.81 0.24869 -0.968583 0 0.00376991
-0.184062 0.464888 -0.81 0.368125 -0.929776 0 0.00376991
-0.240877 0.438153 -0.81 0.481754 -0.876307 0 0.00376991
-0.293893 0.404508 -0.81 0.587785 -0.809017 0 0.00376991
-0.342274 0.364484 -0.81 0.684547 -0.728969 0 0.00376991
-0.385257 0.318712 -0.81 0.770513 -0.637424 0 0.00376991
-0.422164 0.267913 -0.81 0.844328 -0.535827 0 0.00376991
-0.452414 0.21289 -0.81 0.904827 -0.425779 0 0.00376991
-0.475528 0.154508 -0.81 0.951057 -0.309017 0 0.00376991
-0.491144 0.0936907 -0.81 0.982287 -0.187381 0 0.00376991
-0.499013 0.0313953 -0.81 0.998027 -0.0627905 0 0.00376991
-0.499013 -0.0313953 -0.81 0.998027 0.0627905 0 0.00376991
-0.491144 -0.0936907 -0.81 0.982287 0.187381 0 0.00376991
-0.475528 -0.154508 -0.81 0.951057 0.309017 0 0.00376991
-0.452414 -0.21289 -0.81 0.904827 0.425779 0 0.00376991
-0.422164 -0.267913 -0.81 0.844328 0.535827 0 0.00376991
-0.385257 -0.318712 -0.81 0.770513 0.637424 0 0.00376991
-0.342274 -0.364484 -0.81 0.684547 0.728969 0 0.00376991
-0.293893 -0.404508 -0.81 0.587785 0.809017 0 0.00376991
-0.240877 -0.438153 -0.81 0.481754 0.876307 0 0.00376991
-0.184062 -0.464888 -0.81 0.368125 0.929776 0 0.00376991
-0.124345 -0.484292 -0.81 0.24869 0.968583 0 0.00376991
-0.0626666 -0.496057 -0.81 0.125333 0.992115 0 0.00376991
-9.18485e-17 -0.5 -0.81 1.83697e-16 1 0 0.00376991
0.0626666 -0.496057 -0.81 -0.125333 0.992115 0 0.00376991
0.124345 -0.484292 -0.81 -0.24869 0.968583 0 0.00376991
0.184062 -0.464888 -0.81 -0.368125 0.929776 0 0.00376991
0.240877 -0.438153 -0.81 -0.481754 0.876307 0 0.00376991
0.293893 -0.404508 -0.81 -0.587785 0.809017 0 0.00376991
0.342274 -0.364484 -0.81 -0.684547 0.728969 0 0.00376991
0.385257 -0.318712 -0.81 -0.770513 0.637424 0 0.00376991
0.422164 -0.267913 -0.81 -0.844328 0.535827 0 0.00376991
0.452414 -0.21289 -0.81 -0.904827 0.425779 0 0.00376991
0.475528 -0.154508 -0.81 -0.951057 0.309017 0 0.00376991
0.491144 -0.0936907 -0.81 -0.982287 0.187381 0 0.00376991
0.499013 -0.0313953 -0.81 -0.998027 0.0627905 0 0.00376991
0.499013 0.0313953 -0.87 -0.998027 -0.0627905 0 0.00376991
0.491144 0.0936907 -0.87 -0.982287 -0.187381 0 0.00376991
0.475528 0.154508 -0.87 -0.951057 -0.309017 0 0.00376991
0.452414 0.21289 -0.87 -0.904827 -0.425779 0 0.00376991
0.422164 0.267913 -0.87 -0.844328 -0.535827 0 0.00376991
0.385257 0.318712 -0.87 -0.770513 -0.637424 0 0.00376991
0.342274 0.364484 -0.87 -0.684547 -0.728969 0 0.00376991
0.293893 0.404508 -0.87 -0.587785 -0.809017 0 0.00376991
0.240877 0.438153 -0.87 -0.481754 -0.876307 0 0.00376991
0.184062 0.464888 -0.87 -0.368125 -0.929776 0 0.00376991
0.124345 0.484292 -0.87 -0.24869 -0.968583 0 0.00376991
0.0626666 0.496057 -0.87 -0.125333 -0.992115 0 0.00376991
-8.04061e-17 0.5 -0.87 1.60812e-16 -1 0 0.00376991
-0.0626666 0.496057 -0.87 0.125333 -0.992115 0 0.00376991
-0.124345 0.484292 -0.87 0.24869 -0.968583 0 0.00376991
-0.184062 0.464888 -0.87 0.368125 -0.929776 0 0.00376991
-0.240877 0.438153 -0.87 0.481754 -0.876307 0 0.00376991
-0.293893 0.404508 -0.87 0.587785 -0.809017 0 0.00376991
-0.342274 0.364484 -0.87 0.684547 -0.728969 0 0.00376991
-0.385257 0.318712 -0.87 0.770513 -0.637424 0 0.00376991
-0.422164 0.267913 -0.87 0.844328 -0.535827 0 0.00376991
-0.452414 0.21289 -0.87 0.904827 -0.425779 0 0.00376991
-0.475528 0.154508 -0.87 0.951057 -0.309017 0 0.00376991
-0.491144 0.0936907 -0.87 0.982287 -0.187381 0 0.00376991
-0.499013 0.0313953 -0.87 0.998027 -0.0627905 0 0.00376991
-0.499013 -0.0313953 -0.87 0.998027 0.0627905 0 0.00376991
-0.491144 -0.0936907 -0.87 0.982287 0.187381 0 0.00376991
-0.475528 -0.154508 -0.87 0.951057 0.309017 0 0.00376991
-0.452414 -0.21289 -0.87 0.904827 0.425779 0 0.00376991
-0.422164 -0.267913 -0.87 0.844328 0.535827 0 0.00376991
-0.385257 -0.318712 -0.87 0.770513 0.637424 0 0.00376991
-0.342274 -0.364484 -0.87 0.684547 0.728969 0 0.00376991
-0.293893 -0.404508 -0.87 0.587785 0.809017 0 0.00376991
-0.240877 -0.438153 -0.87 0.481754 0.876307 0 0.00376991
-0.184062 -0.464888 -0.87 0.368125 0.929776 0 0.00376991
-0.124345 -0.484292 -0.87 0.24869 0.968583 0 0.00376991
-0.0626666 -0.496057 -0.87 0.125333 0.992115 0 0.00376991
-9.18485e-17 -0.5 -0.87 1.83697e-16 1 0 0.00376991
0.0626666 -0.496057 -0.87 -0.125333 0.992115 0 0.00376991
0.124345 -0.484292 -0.87 -0.24869 0.968583 0 0.00376991
0.184062 -0.464888 -0.87 -0.368125 0.929776 0 0.00376991
0.240877 -0.438153 -0.87 -0.481754 0.876307 0 0.00376991
0.293893 -0.404508 -0.87 -0.587785 0.809017 0 0.00376991
0.342274 -0.364484 -0.87 -0.684547 0.728969 0 0.00376991
0.385257 -0.318712 -0.87 -0.770513 0.637424 0 0.00376991
0.422164 -0.267913 -0.87 -0.844328 0.535827 0 0.00376991
0.452414 -0.21289 -0.87 -0.904827 0.425779 0 0.00376991
0.475528 -0.154508 -0.87 -0.951057 0.309017 0 0.00376991
0.491144 -0.0936907 -0.87 -0.982287 0.187381 0 0.00376991
0.499013 -0.0313953 -0.87 -0.998027 0.0627905 0 0.00376991
0.499013 0.0313953 -0.93 -0.998027 -0.0627905 0 0.00376991
0.491144 0.0936907 -0.93 -0.982287 -0.187381 0 0.00376991
0.475528 0.154508 -0.93 -0.951057 -0.309017 0 0.00376991
0.452414 0.21289 -0.93 -0.904827 -0.425779 0 0.00376991
0.422164 0.267913 -0.93 -0.844328 -0.535827 0 0.00376991
0.385257 0.318712 -0.93 -0.770513 -0.637424 0 0.00376991
0.342274 0.364484 -0.93 -0.684547 -0.728969 0 0.00376991
0.293893 0.404508 -0.93 -0.587785 -0.809017 0 0.00376991
0.240877 0.438153 -0.93 -0.481754 -0.876307 0 0.00376991
0.184062 0.464888 -0.93 -0.368125 -0.929776 0 0.00376991
0.124345 0.484292 -0.93 -0.24869 -0.968583 0 0.00376991
0.0626666 0.496057 -0.93 -0.125333 -0.992115 0 0.00376991
-8.04061e-17 0.5 -0.93 1.60812e-16 -1 0 0.00376991
-0.0626666 0.496057 -0.93 0.125333 -0.992115 0 0.00376991
-0.124345 0.484292 -0.93 0.24869 -0.968583 0 0.00376991
-0.184062 0.464888 -0.93 0.368125 -0.929776 0 0.00376991
-0.240877 0.438153 -0.93 0.481754 -0.876307 0 0.00376991
-0.293893 0.404508 -0.93 0.587785 -0.809017 0 0.00376991
-0.342274 0.364484 -0.93 0.684547 -0.728969 0 0.00376991
-0.385257 0.318712 -0.93 0.770513 -0.637424 0 0.00376991
-0.422164 0.267913 -0.93 0.844328 -0.535827 0 0.00376991
-0.452414 0.21289 -0.93 0.904827 -0.425779 0 0.00376991
-0.475528 0.154508 -0.93 0.951057 -0.309017 0 0.00376991
-0.491144 0.0936907 -0.93 0.982287 -0.187381 0 0.00376991
-0.499013 0.0313953 -0.93 0.998027 -0.0627905 0 0.00376991
-0.499013 -0.0313953 -0.93 0.998027 0.0627905 0 0.00376991
-0.491144 -0.0936907 -0.93 0.982287 0.187381 0 0.00376991
-0.475528 -0.154508 -0.93 0.951057 0.309017 0 0.00376991
-0.452414 -0.21289 -0.93 0.904827 0.425779 0 0.00376991
-0.422164 -0.267913 -0.93 0.844328 0.535827 0 0.00376991
-0.385257 -0.318712 -0.93 0.770513 0.637424 0 0.00376991
-0.342274 -0.364484 -0.93 0.684547 0.728969 0 0.00376991
-0.293893 -0.404508 -0.93 0.587785 0.809017 0 0.00376991
-0.240877 -0.438153 -0.93 0.481754 0.876307 0 0.00376991
-0.184062 -0.464888 -0.93 0.368125 0.929776 0 0.00376991
-0.124345 -0.484292 -0.93 0.24869 0.968583 0 0.00376991
-0.0626666 -0.496057 -0.93 0.125333 0.992115 0 0.00376991
-9.18485e-17 -0.5 -0.93 1.83697e-16 1 0 0.00376991
0.0626666 -0.496057 -0.93 -0.125333 0.992115 0 0.00376991
0.124345 -0.484292 -0.93 -0.24869 0.968583 0 0.00376991
0.184062 -0.464888 -0.93 -0.368125 0.929776 0 0.00376991
0.240877 -0.438153 -0.93 -0.481754 0.876307 0 0.00376991
0.293893 -0.404508 -0.93 -0.587785 0.809017 0 0.00376991
0.342274 -0.364484 -0.93 -0.684547 0.728969 0 0.00376991
0.385257 -0.318712 -0.93 -0.770513 0.637424 0 0.00376991
0.422164 -0.267913 -0.93 -0.844328 0.535827 0 0.00376991
0.452414 -0.21289 -0.93 -0.904827 0.425779 0 0.00376991
0.475528 -0.154508 -0.93 -0.951057 0.309017 0 0.00376991
0.491144 -0.0936907 -0.93 -0.982287 0.187381 0 0.00376991
0.499013 -0.0313953 -0.93 -0.998027 0.0627905 0 0.00376991
0.499013 0.0313953 -0.99 -0.998027 -0.0627905 0 0.00376991
0.491144 0.0936907 -0.99 -0.982287 -0.187381 0 0.00376991
0.475528 0.154508 -0.99 -0.951057 -0.309017 0 0.00376991
0.452414 0.21289 -0.99 -0.904827 -0.425779 0 0.00376991
0.422164 0.267913 -0.99 -0.844328 -0.535827 0 0.00376991
0.385257 0.318712 -0.99 -0.770513 -0.637424 0 0.00376991
0.342274 0.364484 -0.99 -0.684547 -0.728969 0 0.00376991
0.293893 0.404508 -0.99 -0.587785 -0.809017 0 0.00376991
0.240877 0.438153 -0.99 -0.481754 -0.876307 0 0.00376991
0.184062 0.464888 -0.99 -0.368125 -0.929776 0 0.00376991
0.124345 0.484292 -0.99 -0.24869 -0.968583 0 0.00376991
0.0626666 0.496057 -0.99 -0.125333 -0.992115 0 0.00376991
-8.04061e-17 0.5 -0.99 1.60812e-16 -1 0 0.00376991
-0.0626666 0.496057 -0.99 0.125333 -0.992115 0 0.00376991
-0.124345 0.484292 -0.99 0.24869 -0.968583 0 0.00376991
-0.184062 0.464888 -0.99 0.368125 -0.929776 0 0.00376991
-0.240877 0.438153 -0.99 0.481754 -0.876307 0 0.00376991
-0.293893 0.404508 -0.99 0.587785 -0.809017 0 0.00376991
-0.342274 0.364484 -0.99 0.684547 -0.728969 0 0.00376991
-0.385257 0.318712 -0.99 0.770513 -0.637424 0 0.00376991
-0.422164 0.267913 -0.99 0.844328 -0.535827 0 0.00376991
-0.452414 0.21289 -0.99 0.904827 -0.425779 0 0.00376991
-0.475528 0.154508 -0.99 0.951057 -0.309017 0 0.00376991
-0.491144 0.0936907 -0.99 0.982287 -0.187381 0 0.00376991
-0.499013 0.0313953 -0.99 0.998027 -0.0627905 0 0.00376991
-0.499013 -0.0313953 -0.99 0.998027 0.0627905 0 0.00376991
-0.491144 -0.0936907 -0.99 0.982287 0.187381 0 0.00376991
-0.475528 -0.154508 -0.99 0.951057 0.309017 0 0.00376991
-0.452414 -0.21289 -0.99 0.904827 0.425779 0 0.00376991
-0.422164 -0.267913 -0.99 0.844328 0.535827 0 0.00376991
-0.385257 -0.318712 -0.99 0.770513 0.637424 0 0.00376991
-0.342274 -0.364484 -0.99 0.684547 0.728969 0 0.00376991
-0.293893 -0.404508 -0.99 0.587785 0.809017 0 0.00376991
-0.240877 -0.438153 -0.99 0.481754 0.876307 0 0.00376991
-0.184062 -0.464888 -0.99 0.368125 0.929776 0 0.00376991
-0.124345 -0.484292 -0.99 0.24869 0.968583 0 0.00376991
-0.0626666 -0.496057 -0.99 0.125333 0.992115 0 0.00376991
-9.18485e-17 -0.5 -0.99 1.83697e-16 1 0 0.00376991
0.0626666 -0.496057 -0.99 -0.125333 0.992115 0 0.00376991
0.124345 -0.484292 -0.99 -0.24869 0.968583 0 0.00376991
0.184062 -0.464888 -0.99 -0.368125 0.929776 0 0.00376991
0.240877 -0.438153 -0.99 -0.481754 0.876307 0 0.00376991
0.293893 -0.404508 -0.99 -0.587785 0.809017 0 0.00376991
0.342274 -0.364484 -0.99 -0.684547 0.728969 0 0.00376991
0.385257 -0.318712 -0.99 -0.770513 0.637424 0 0.00376991
0.422164 -0.267913 -0.99 -0.844328 0.535827 0 0.00376991
0.452414 -0.21289 -0.99 -0.904827 0.425779 0 0.00376991
0.475528 -0.154508 -0.99 -0.951057 0.309017 0 0.00376991
0.491144 -0.0936907 -0.99 -0.982287 0.187381 0 0.00376991
0.499013 -0.0313953 -0.99 -0.998027 0.0627905 0 0.00376991
0.499013 0.0313953 -1.05 -0.998027 -0.0627905 0 0.00376991
0.491144 0.0936907 -1.05 -0.982287 -0.187381 0 0.00376991
0.475528 0.154508 -1.05 -0.951057 -0.309017 0 0.00376991
0.452414 0.21289 -1.05 -0.904827 -0.425779 0 0.00376991
0.422164 0.267913 -1.05 -0.844328 -0.535827 0 0.00376991
0.385257 0.318712 -1.05 -0.770513 -0.637424 0 0.00376991
0.342274 0.364484 -1.05 -0.684547 -0.728969 0 0.00376991
0.293893 0.404508 -1.05 -0.587785 -0.809017 0 0.00376991
0.240877 0.438153 -1.05 -0.481754 -0.876307 0 0.00376991
0.184062 0.464888 -1.05 -0.368125 -0.929776 0 0.00376991
0.124345 0.484292 -1.05 -0.24869 -0.968583 0 0.00376991
0.0626666 0.496057 -1.05 -0.125333 -0.992115 0 0.00376991
-8.04061e-17 0.5 -1.05 1.60812e-16 -1 0 0.00376991
-0.0626666 0.496057 -1.05 0.125333 -0.992115 0 0.00376991
-0.124345 0.484292 -1.05 0.24869 -0.968583 0 0.00376991
-0.184062 0.464888 -1.05 0.368125 -0.929776 0 0.00376991
-0.240877 0.438153 -1.05 0.481754 -0.876307 0 0.00376991
-0.293893 0.404508 -1.05 0.587785 -0.809017 0 0.00376991
-0.342274 0.364484 -1.05 0.684547 -0.728969 0 0.00376991
-0.385257 0.318712 -1.05 0.770513 -0.637424 0 0.00376991
-0.422164 0.267913 -1.05 0.844328 -0.535827 0 0.00376991
-0.452414 0.21289 -1.05 0.904827 -0.425779 0 0.00376991
-0.475528 0.154508 -1.05 0.951057 -0.309017 0 0.00376991
-0.491144 0.0936907 -1.05 0.982287 -0.187381 0 0.00376991
-0.499013 0.0313953 -1.05 0.998027 -0.0627905 0 0.00376991
-0.499013 -0.0313953 -1.05 0.998027 0.0627905 0 0.00376991
-0.491144 -0.0936907 -1.05 0.982287 0.187381 0 0.00376991
-0.475528 -0.154508 -1.05 0.951057 0.309017 0 0.00376991
-0.452414 -0.21289 -1.05 0.904827 0.425779 0 0.00376991
-0.422164 -0.267913 -1.05 0.844328 0.535827 0 0.00376991
-0.385257 -0.318712 -1.05 0.770513 0.637424 0 0.00376991
-0.342274 -0.364484 -1.05 0.684547 0.728969 0 0.00376991
-0.293893 -0.404508 -1.05 0.587785 0.809017 0 0.00376991
-0.240877 -0.438153 -1.05 0.481754 0.876307 0 0.00376991
-0.184062 -0.464888 -1.05 0.368125 0.929776 0 0.00376991
-0.124345 -0.484292 -1.05 0.24869 0.968583 0 0.00376991
-0.0626666 -0.496057 -1.05 0.125333 0.992115 0 0.00376991
-9.18485e-17 -0.5 -1.05 1.83697e-16 1 0 0.00376991
0.0626666 -0.496057 -1.05 -0.125333 0.992115 0 0.00376991
0.124345 -0.484292 -1.05 -0.24869 0.968583 0 0.00376991
0.184062 -0.464888 -1.05 -0.368125 0.929776 0 0.00376991
0.240877 -0.438153 -1.05 -0.481754 0.876307 0 0.00376991
0.293893 -0.404508 -1.05 -0.587785 0.809017 0 0.00376991
0.342274 -0.364484 -1.05 -0.684547 0.728969 0 0.00376991
0.385257 -0.318712 -1.05 -0.770513 0.637424 0 0.00376991
0.422164 -0.267913 -1.05 -0.844328 0.535827 0 0.00376991
0.452414 -0.21289 -1.05 -0.904827 0.425779 0 0.00376991
0.475528 -0.154508 -1.05 -0.951057 0.309017 0 0.00376991
0.491144 -0.0936907 -1.05 -0.982287 0.187381 0 0.00376991
0.499013 -0.0313953 -1.05 -0.998027 0.0627905 0 0.00376991
0.499013 0.0313953 -1.11 -0.998027 -0.0627905 0 0.00376991
0.491144 0.0936907 -1.11 -0.982287 -0.187381 0 0.00376991
0.475528 0.154508 -1.11 -0.951057 -0.309017 0 0.00376991
0.452414 0.21289 -1.11 -0.904827 -0.425779 0 0.00376991
0.422164 0.267913 -1.11 -0.844328 -0.535827 0 0.00376991
0.385257 0.318712 -1.11 -0.770513 -0.637424 0 0.00376991
0.342274 0.364484 -1.11 -0.684547 -0.728969 0 0.00376991
0.293893 0.404508 -1.11 -0.587785 -0.809017 0 0.00376991
0.240877 0.438153 -1.11 -0.481754 -0.876307 0 0.00376991
0.184062 0.464888 -1.11 -0.368125 -0.929776 0 0.00376991
0.124345 0.484292 -1.11 -0.24869 -0.968583 0 0.00376991
0.0626666 0.496057 -1.11 -0.125333 -0.992115 0 0.00376991
-8.04061e-17 0.5 -1.11 1.60812e-16 -1 0 0.00376991
-0.0626666 0.496057 -1.11 0.125333 -0.992115 0 0.00376991
-0.124345 0.484292 -1.11 0.24869 -0.968583 0 0.00376991
-0.184062 0.464888 -1.11 0.368125 -0.929776 0 0.00376991
-0.240877 0.438153 -1.11 0.481754 -0.876307 0 0.00376991
-0.293893 0.404508 -1.11 0.587785 -0.809017 0 0.00376991
-0.342274 0.364484 -1.11 0.684547 -0.728969 0 0.00376991
-0.385257 0.318712 -1.11 0.770513 -0.637424 0 0.00376991
-0.422164 0.267913 -1.11 0.844328 -0.535827 0 0.00376991
-0.452414 0.21289 -1.11 0.904827 -0.425779 0 0.00376991
-0.475528 0.154508 -1.11 0.951057 -0.309017 0 0.00376991
-0.491144 0.0936907 -1.11 0.982287 -0.187381 0 0.00376991
-0.499013 0.0313953 -1.11 0.998027 -0.0627905 0 0.00376991
-0.499013 -0.0313953 -1.11 0.998027 0.0627905 0 0.00376991
-0.491144 -0.0936907 -1.11 0.982287 0.187381 0 0.00376991
-0.475528 -0.154508 -1.11 0.951057 0.309017 0 0.00376991
-0.452414 -0.21289 -1.11 0.904827 0.425779 0 0.00376991
-0.422164 -0.267913 -1.11 0.844328 0.535827 0 0.00376991
-0.385257 -0.318712 -1.11 0.770513 0.637424 0 0.00376991
-0.342274 -0.364484 -1.11 0.684547 0.728969 0 0.00376991
-0.293893 -0.404508 -1.11 0.587785 0.809017 0 0.00376991
-0.240877 -0.438153 -1.11 0.481754 0.876307 0 0.00376991
-0.184062 -0.464888 -1.11 0.368125 0.929776 0 0.00376991
-0.124345 -0.484292 -1.11 0.24869 0.968583 0 0.00376991
-0.0626666 -0.496057 -1.11 0.125333 0.992115 0 0.00376991
-9.18485e-17 -0.5 -1.11 1.83697e-16 1 0 0.00376991
0.0626666 -0.496057 -1.11 -0.125333 0.992115 0 0.00376991
0.124345 -0.484292 -1.11 -0.24869 0.968583 0 0.00376991
0.184062 -0.464888 -1.11 -0.368125 0.929776 0 0.00376991
0.240877 -0.438153 -1.11 -0.481754 0.876307 0 0.00376991
0.293893 -0.404508 -1.11 -0.587785 0.809017 0 0.00376991
0.342274 -0.364484 -1.11 -0.684547 0.728969 0 0.00376991
0.385257 -0.318712 -1.11 -0.770513 0.637424 0 0.00376991
0.422164 -0.267913 -1.11 -0.844328 0.535827 0 0.00376991
0.452414 -0.21289 -1.11 -0.904827 0.425779 0 0.00376991
0.475528 -0.154508 -1.11 -0.951057 0.309017 0 0.00376991
0.491144 -0.0936907 -1.11 -0.982287 0.187381 0 0.00376991
0.499013 -0.0313953 -1.11 -0.998027 0.0627905 0 0.00376991
0.499013 0.0313953 -1.17 -0.998027 -0.0627905 0 0.00376991
0.491144 0.0936907 -1.17 -0.982287 -0.187381 0 0.00376991
0.475528 0.154508 -1.17 -0.951057 -0.309017 0 0.00376991
0.452414 0.21289 -1.17 -0.904827 -0.425779 0 0.00376991
0.422164 0.267913 -1.17 -0.844328 -0.535827 0 0.00376991
0.385257 0.318712 -1.17 -0.770513 -0.637424 0 0.00376991
0.342274 0.364484 -1.17 -0.684547 -0.728969 0 0.00376991
0.293893 0.404508 -1.17 -0.587785 -0.809017 0 0.00376991
0.240877 0.438153 -1.17 -0.481754 -0.876307 0 0.00376991
0.184062 0.464888 -1.17 -0.368125 -0.929776 0 0.00376991
0.124345 0.484292 -1.17 -0.24869 -0.968583 0 0.00376991
0.0626666 0.496057 -1.17 -0.125333 -0.992115 0 0.00376991
-8.04061e-17 0.5 -1.17 1.60812e-16 -1 0 0.00376991
-0.0626666 0.496057 -1.17 0.125333 -0.992115 0 0.00376991
-0.124345 0.484292 -1.17 0.24869 -0.968583 0 0.00376991
-0.184062 0.464888 -1.17 0.368125 -0.929776 0 0.00376991
-0.240877 0.438153 -1.17 0.481754 -0.876307 0 0.00376991
-0.293893 0.404508 -1.17 0.587785 -0.809017 0 0.00376991
-0.342274 0.364484 -1.17 0.684547 -0.728969 0 0.00376991
-0.385257 0.318712 -1.17 0.770513 -0.637424 0 0.00376991
-0.422164 0.267913 -1.17 0.844328 -0.535827 0 0.00376991
-0.452414 0.21289 -1.17 0.904827 -0.425779 0 0.00376991
-0.475528 0.154508 -1.17 0.951057 -0.309017 0 0.00376991
-0.491144 0.0936907 -1.17 0.982287 -0.187381 0 0.00376991
-0.499013 0.0313953 -1.17 0.998027 -0.0627905 0 0.00376991
-0.499013 -0.0313953 -1.17 0.998027 0.0627905 0 0.00376991
-0.491144 -0.0936907 -1.17 0.982287 0.187381 0 0.00376991
-0.475528 -0.154508 -1.17 0.951057 0.309017 0 0.00376991
-0.452414 -0.21289 -1.17 0.904827 0.425779 0 0.00376991
-0.422164 -0.267913 -1.17 0.844328 0.535827 0 0.00376991
-0.385257 -0.318712 -1.17 0.770513 0.637424 0 0.00376991
-0.342274 -0.364484 -1.17 0.684547 0.728969 0 0.00376991
-0.293893 -0.404508 -1.17 0.587785 0.809017 0 0.00376991
-0.240877 -0.438153 -1.17 0.481754 0.876307 0 0.00376991
-0.184062 -0.464888 -1.17 0.368125 0.929776 0 0.00376991
-0.124345 -0.484292 -1.17 0.24869 0.968583 0 0.00376991
-0.0626666 -0.496057 -1.17 0.125333 0.992115 0 0.00376991
-9.18485e-17 -0.5 -1.17 1.83697e-16 1 0 0.00376991
0.0626666 -0.496057 -1.17 -0.125333 0.992115 0 0.00376991
0.124345 -0.484292 -1.17 -0.24869 0.968583 0 0.00376991
0.184062 -0.464888 -1.17 -0.368125 0.929776 0 0.00376991
0.240877 -0.438153 -1.17 -0.481754 0.876307 0 0.00376991
0.293893 -0.404508 -1.17 -0.587785 0.809017 0 0.00376991
0.342274 -0.364484 -1.17 -0.684547 0.728969 0 0.00376991
0.385257 -0.318712 -1.17 -0.770513 0.637424 0 0.00376991
0.422164 -0.267913 -1.17 -0.844328 0.535827 0 0.00376991
0.452414 -0.21289 -1.17 -0.904827 0.425779 0 0.00376991
0.475528 -0.154508 -1.17 -0.951057 0.309017 0 0.00376991
0.491144 -0.0936907 -1.17 -0.982287 0.187381 0 0.00376991
0.499013 -0.0313953 -1.17 -0.998027 0.0627905 0 0.00376991
0.499013 0.0313953 -1.23 -0.998027 -0.0627905 0 0.00376991
0.491144 0.0936907 -1.23 -0.982287 -0.187381 0 0.00376991
0.475528 0.154508 -1.23 -0.951057 -0.309017 0 0.00376991
0.452414 0.21289 -1.23 -0.904827 -0.425779 0 0.00376991
0.422164 0.267913 -1.23 -0.844328 -0.535827 0 0.00376991
0.385257 0.318712 -1.23 -0.770513 -0.637424 0 0.00376991
0.342274 0.364484 -1.23 -0.684547 -0.728969 0 0.00376991
0.293893 0.404508 -1.23 -0.587785 -0.809017 0 0.00376991
0.240877 0.438153 -1.23 -0.481754 -0.876307 0 0.00376991
0.184062 0.464888 -1.23 -0.368125 -0.929776 0 0.00376991
0.124345 0.484292 -1.23 -0.24869 -0.968583 0 0.00376991
0.0626666 0.496057 -1.23 -0.125333 -0.992115 0 0.00376991
-8.04061e-17 0.5 -1.23 1.60812e-16 -1 0 0.00376991
-0.0626666 0.496057 -1.23 0.125333 -0.992115 0 0.00376991
-0.124345 0.484292 -1.23 0.24869 -0.968583 0 0.00376991
-0.184062 0.464888 -1.23 0.368125 -0.929776 0 0.00376991
-0.240877 0.438153 -1.23 0.481754 -0.876307 0 0.00376991
-0.293893 0.404508 -1.23 0.587785 -0.809017 0 0.00376991
-0.342274 0.364484 -1.23 0.684547 -0.728969 0 0.00376991
-0.385257 0.318712 -1.23 0.770513 -0.637424 0 0.00376991
-0.422164 0.267913 -1.23 0.844328 -0.535827 0 0.00376991
-0.452414 0.21289 -1.23 0.904827 -0.425779 0 0.00376991
-0.475528 0.154508 -1.23 0.951057 -0.309017 0 0.00376991
-0.491144 0.0936907 -1.23 0.982287 -0.187381 0 0.00376991
-0.499013 0.0313953 -1.23 0.998027 -0.0627905 0 0.00376991
-0.499013 -0.0313953 -1.23 0.998027 0.0627905 0 0.00376991
-0.491144 -0.0936907 -1.23 0.982287 0.187381 0 0.00376991
-0.475528 -0.154508 -1.23 0.951057 0.309017 0 0.00376991
-0.452414 -0.21289 -1.23 0.904827 0.425779 0 0.00376991
-0.422164 -0.267913 -1.23 0.844328 0.535827 0 0.00376991
-0.385257 -0.318712 -1.23 0.770513 0.637424 0 0.00376991
-0.342274 -0.364484 -1.23 0.684547 0.728969 0 0.00376991
-0.293893 -0.404508 -1.23 0.587785 0.809017 0 0.00376991
-0.240877 -0.438153 -1.23 0.481754 0.876307 0 0.00376991
-0.184062 -0.464888 -1.23 0.368125 0.929776 0 0.00376991
-0.124345 -0.484292 -1.23 0.24869 0.968583 0 0.00376991
-0.0626666 -0.496057 -1.23 0.125333 0.992115 0 0.00376991
-9.18485e-17 -0.5 -1.23 1.83697e-16 1 0 0.00376991
0.0626666 -0.496057 -1.23 -0.125333 0.992115 0 0.00376991
0.124345 -0.484292 -1.23 -0.24869 0.968583 0 0.00376991
0.184062 -0.464888 -1.23 -0.368125 0.929776 0 0.00376991
0.240877 -0.438153 -1.23 -0.481754 0.876307 0 0.00376991
0.293893 -0.404508 -1.23 -0.587785 0.809017 0 0.00376991
0.342274 -0.364484 -1.23 -0.684547 0.728969 0 0.00376991
0.385257 -0.318712 -1.23 -0.770513 0.637424 0 0.00376991
0.422164 -0.267913 -1.23 -0.844328 0.535827 0 0.00376991
0.452414 -0.21289 -1.23 -0.904827 0.425779 0 0.00376991
0.475528 -0.154508 -1.23 -0.951057 0.309017 0 0.00376991
0.491144 -0.0936907 -1.23 -0.982287 0.187381 0 0.00376991
0.499013 -0.0313953 -1.23 -0.998027 0.0627905 0 0.00376991
0.499013 0.0313953 -1.29 -0.998027 -0.0627905 0 0.00376991
0.491144 0.0936907 -1.29 -0.982287 -0.187381 0 0.00376991
0.475528 0.154508 -1.29 -0.951057 -0.309017 0 0.00376991
0.452414 0.21289 -1.29 -0.904827 -0.425779 0 0.00376991
0.422164 0.267913 -1.29 -0.844328 -0.535827 0 0.00376991
0.385257 0.318712 -1.29 -0.770513 -0.637424 0 0.00376991
0.342274 0.364484 -1.29 -0.684547 -0.728969 0 0.00376991
0.293893 0.404508 -1.29 -0.587785 -0.809017 0 0.00376991
0.240877 0.438153 -1.29 -0.481754 -0.876307 0 0.00376991
0.184062 0.464888 -1.29 -0.368125 -0.929776 0 0.00376991
0.124345 0.484292 -1.29 -0.24869 -0.968583 0 0.00376991
0.0626666 0.496057 -1.29 -0.125333 -0.992115 0 0.00376991
-8.04061e-17 0.5 -1.29 1.60812e-16 -1 0 0.00376991
-0.0626666 0.496057 -1.29 0.125333 -0.992115 0 0.00376991
-0.124345 0.484292 -1.29 0.24869 -0.968583 0 0.00376991
-0.184062 0.464888 -1.29 0.368125 -0.929776 0 0.00376991
-0.240877 0.438153 -1.29 0.481754 -0.876307 0 0.00376991
-0.293893 0.404508 -1.29 0.587785 -0.809017 0 0.00376991
-0.342274 0.364484 -1.29 0.684547 -0.728969 0 0.00376991
-0.385257 0.318712 -1.29 0.770513 -0.637424 0 0.00376991
-0.422164 0.267913 -1.29 0.844328 -0.535827 0 0.00376991
-0.452414 0.21289 -1.29 0.904827 -0.425779 0 0.00376991
-0.475528 0.154508 -1.29 0.951057 -0.309017 0 0.00376991
-0.491144 0.0936907 -1.29 0.982287 -0.187381 0 0.00376991
-0.499013 0.0313953 -1.29 0.998027 -0.0627905 0 0.00376991
-0.499013 -0.0313953 -1.29 0.998027 0.0627905 0 0.00376991
-0.491144 -0.0936907 -1.29 0.982287 0.187381 0 0.00376991
-0.475528 -0.154508 -1.29 0.951057 0.309017 0 0.00376991
-0.452414 -0.21289 -1.29 0.904827 0.425779 0 0.00376991
-0.422164 -0.267913 -1.29 0.844328 0.535827 0 0.00376991
-0.385257 -0.318712 -1.29 0.770513 0.637424 0 0.00376991
-0.342274 -0.364484 -1.29 0.684547 0.728969 0 0.00376991
-0.293893 -0.404508 -1.29 0.587785 0.809017 0 0.00376991
-0.240877 -0.438153 -1.29 0.481754 0.876307 0 0.00376991
-0.184062 -0.464888 -1.29 0.368125 0.929776 0 0.00376991
-0.124345 -0.484292 -1.29 0.24869 0.968583 0 0.00376991
-0.0626666 -0.496057 -1.29 0.125333 0.992115 0 0.00376991
-9.18485e-17 -0.5 -1.29 1.83697e-16 1 0 0.00376991
0.0626666 -0.496057 -1.29 -0.125333 0.992115 0 0.00376991
0.124345 -0.484292 -1.29 -0.24869 0.968583 0 0.00376991
0.184062 -0.464888 -1.29 -0.368125 0.929776 0 0.00376991
0.240877 -0.438153 -1.29 -0.481754 0.876307 0 0.00376991
0.293893 -0.404508 -1.29 -0.587785 0.809017 0 0.00376991
0.342274 -0.364484 -1.29 -0.684547 0.728969 0 0.00376991
0.385257 -0.318712 -1.29 -0.770513 0.637424 0 0.00376991
0.422164 -0.267913 -1.29 -0.844328 0.535827 0 0.00376991
0.452414 -0.21289 -1.29 -0.904827 0.425779 0 0.00376991
0.475528 -0.154508 -1.29 -0.951057 0.309017 0 0.00376991
0.491144 -0.0936907 -1.29 -0.982287 0.187381 0 0.00376991
0.499013 -0.0313953 -1.29 -0.998027 0.0627905 0 0.00376991
0.499013 0.0313953 -1.35 -0.998027 -0.0627905 0 0.00376991
0.491144 0.0936907 -1.35 -0.982287 -0.187381 0 0.00376991
0.475528 0.154508 -1.35 -0.951057 -0.309017 0 0.00376991
0.452414 0.21289 -1.35 -0.904827 -0.425779 0 0.00376991
0.422164 0.267913 -1.35 -0.844328 -0.535827 0 0.00376991
0.385257 0.318712 -1.35 -0.770513 -0.637424 0 0.00376991
0.342274 0.364484 -1.35 -0.684547 -0.728969 0 0.00376991
0.293893 0.404508 -1.35 -0.587785 -0.809017 0 0.00376991
0.240877 0.438153 -1.35 -0.481754 -0.876307 0 0.00376991
0.184062 0.464888 -1.35 -0.368125 -0.929776 0 0.00376991
0.124345 0.484292 -1.35 -0.24869 -0.968583 0 0.00376991
0.0626666 0.496057 -1.35 -0.125333 -0.992115 0 0.00376991
-8.04061e-17 0.5 -1.35 1.60812e-16 -1 0 0.00376991
-0.0626666 0.496057 -1.35 0.125333 -0.992115 0 0.00376991
-0.124345 0.484292 -1.35 0.24869 -0.968583 0 0.00376991
-0.184062 0.464888 -1.35 0.368125 -0.929776 0 0.00376991
-0.240877 0.438153 -1.35 0.481754 -0.876307 0 0.00376991
-0.293893 0.404508 -1.35 0.587785 -0.809017 0 0.00376991
-0.342274 0.364484 -1.35 0.684547 -0.728969 0 0.00376991
-0.385257 0.318712 -1.35 0.770513 -0.637424 0 0.00376991
-0.422164 0.267913 -1.35 0.844328 -0.535827 0 0.00376991
-0.452414 0.21289 -1.35 0.904827 -0.425779 0 0.00376991
-0.475528 0.154508 -1.35 0.951057 -0.309017 0 0.00376991
-0.491144 0.0936907 -1.35 0.982287 -0.187381 0 0.00376991
-0.499013 0.0313953 -1.35 0.998027 -0.0627905 0 0.00376991
-0.499013 -0.0313953 -1.35 0.998027 0.0627905 0 0.00376991
-0.491144 -0.0936907 -1.35 0.982287 0.187381 0 0.00376991
-0.475528 -0.154508 -1.35 0.951057 0.309017 0 0.00376991
-0.452414 -0.21289 -1.35 0.904827 0.425779 0 0.00376991
-0.422164 -0.267913 -1.35 0.844328 0.535827 0 0.00376991
-0.385257 -0.318712 -1.35 0.770513 0.637424 0 0.00376991
-0.342274 -0.364484 -1.35 0.684547 0.728969 0 0.00376991
-0.293893 -0.404508 -1.35 0.587785 0.809017 0 0.00376991
-0.240877 -0.438153 -1.35 0.481754 0.876307 0 0.00376991
-0.184062 -0.464888 -1.35 0.368125 0.929776 0 0.00376991
-0.124345 -0.484292 -1.35 0.24869 0.968583 0 0.00376991
-0.0626666 -0.496057 -1.35 0.125333 0.992115 0 0.00376991
-9.18485e-17 -0.5 -1.35 1.83697e-16 1 0 0.00376991
0.0626666 -0.496057 -1.35 -0.125333 0.992115 0 0.00376991
0.124345 -0.484292 -1.35 -0.24869 0.968583 0 0.00376991
0.184062 -0.464888 -1.35 -0.368125 0.929776 0 0.00376991
0.240877 -0.438153 -1.35 -0.481754 0.876307 0 0.00376991
0.293893 -0.404508 -1.35 -0.587785 0.809017 0 0.00376991
0.342274 -0.364484 -1.35 -0.684547 0.728969 0 0.00376991
0.385257 -0.318712 -1.35 -0.770513 0.637424 0 0.00376991
0.422164 -0.267913 -1.35 -0.844328 0.535827 0 0.00376991
0.452414 -0.21289 -1.35 -0.904827 0.425779 0 0.00376991
0.475528 -0.154508 -1.35 -0.951057 0.309017 0 0.00376991
0.491144 -0.0936907 -1.35 -0.982287 0.187381 0 0.00376991
0.499013 -0.0313953 -1.35 -0.998027 0.0627905 0 0.00376991
0.499013 0.0313953 -1.41 -0.998027 -0.0627905 0 0.00376991
0.491144 0.0936907 -1.41 -0.982287 -0.187381 0 0.00376991
0.475528 0.154508 -1.41 -0.951057 -0.309017 0 0.00376991
0.452414 0.21289 -1.41 -0.904827 -0.425779 0 0.00376991
0.422164 0.267913 -1.41 -0.844328 -0.535827 0 0.00376991
0.385257 0.318712 -1.41 -0.770513 -0.637424 0 0.00376991
0.342274 0.364484 -1.41 -0.684547 -0.728969 0 0.00376991
0.293893 0.404508 -1.41 -0.587785 -0.809017 0 0.00376991
0.240877 0.438153 -1.41 -0.481754 -0.876307 0 0.00376991
0.184062 0.464888 -1.41 -0.368125 -0.929776 0 0.00376991
0.124345 0.484292 -1.41 -0.24869 -0.968583 0 0.00376991
0.0626666 0.496057 -1.41 -0.125333 -0.992115 0 0.00376991
-8.04061e-17 0.5 -1.41 1.60812e-16 -1 0 0.00376991
-0.0626666 0.496057 -1.41 0.125333 -0.992115 0 0.00376991
-0.124345 0.484292 -1.41 0.24869 -0.968583 0 0.00376991
-0.184062 0.464888 -1.41 0.368125 -0.929776 0 0.00376991
-0.240877 0.438153 -1.41 0.481754 -0.876307 0 0.00376991
-0.293893 0.404508 -1.41 0.587785 -0.809017 0 0.00376991
-0.342274 0.364484 -1.41 0.684547 -0.728969 0 0.00376991
-0.385257 0.318712 -1.41 0.770513 -0.637424 0 0.00376991
-0.422164 0.267913 -1.41 0.844328 -0.535827 0 0.00376991
-0.452414 0.21289 -1.41 0.904827 -0.425779 0 0.00376991
-0.475528 0.154508 -1.41 0.951057 -0.309017 0 0.00376991
-0.491144 0.0936907 -1.41 0.982287 -0.187381 0 0.00376991
-0.499013 0.0313953 -1.41 0.998027 -0.0627905 0 0.00376991
-0.499013 -0.0313953 -1.41 0.998027 0.0627905 0 0.00376991
-0.491144 -0.0936907 -1.41 0.982287 0.187381 0 0.00376991
-0.475528 -0.154508 -1.41 0.951057 0.309017 0 0.00376991
-0.452414 -0.21289 -1.41 0.904827 0.425779 0 0.00376991
-0.422164 -0.267913 -1.41 0.844328 0.535827 0 0.00376991
-0.385257 -0.318712 -1.41 0.770513 0.637424 0 0.00376991
-0.342274 -0.364484 -1.41 0.684547 0.728969 0 0.00376991
-0.293893 -0.404508 -1.41 0.587785 0.809017 0 0.00376991
-0.240877 -0.438153 -1.41 0.481754 0.876307 0 0.00376991
-0.184062 -0.464888 -1.41 0.368125 0.929776 0 0.00376991
-0.124345 -0.484292 -1.41 0.24869 0.968583 0 0.00376991
-0.0626666 -0.496057 -1.41 0.125333 0.992115 0 0.00376991
-9.18485e-17 -0.5 -1.41 1.83697e-16 1 0 0.00376991
0.0626666 -0.496057 -1.41 -0.125333 0.992115 0 0.00376991
0.124345 -0.484292 -1.41 -0.24869 0.968583 0 0.00376991
0.184062 -0.464888 -1.41 -0.368125 0.929776 0 0.00376991
0.240877 -0.438153 -1.41 -0.481754 0.876307 0 0.00376991
0.293893 -0.404508 -1.41 -0.587785 0.809017 0 0.00376991
0.342274 -0.364484 -1.41 -0.684547 0.728969 0 0.00376991
0.385257 -0.318712 -1.41 -0.770513 0.637424 0 0.00376991
0.422164 -0.267913 -1.41 -0.844328 0.535827 0 0.00376991
0.452414 -0.21289 -1.41 -0.904827 0.425779 0 0.00376991
0.475528 -0.154508 -1.41 -0.951057 0.309017 0 0.00376991
0.491144 -0.0936907 -1.41 -0.982287 0.187381 0 0.00376991
0.499013 -0.0313953 -1.41 -0.998027 0.0627905 0 0.00376991
0.499013 0.0313953 -1.47 -0.998027 -0.0627905 0 0.00376991
0.491144 0.0936907 -1.47 -0.982287 -0.187381 0 0.00376991
0.475528 0.154508 -1.47 -0.951057 -0.309017 0 0.00376991
0.452414 0.21289 -1.47 -0.904827 -0.425779 0 0.00376991
0.422164 0.267913 -1.47 -0.844328 -0.535827 0 0.00376991
0.385257 0.318712 -1.47 -0.770513 -0.637424 0 0.00376991
0.342274 0.364484 -1.47 -0.684547 -0.728969 0 0.00376991
0.293893 0.404508 -1.47 -0.587785 -0.809017 0 0.00376991
0.240877 0.438153 -1.47 -0.481754 -0.876307 0 0.00376991
0.184062 0.464888 -1.47 -0.368125 -0.929776 0 0.00376991
0.124345 0.484292 -1.47 -0.24869 -0.968583 0 0.00376991
0.0626666 0.496057 -1.47 -0.125333 -0.992115 0 0.00376991
-8.04061e-17 0.5 -1.47 1.60812e-16 -1 0 0.00376991
-0.0626666 0.496057 -1.47 0.125333 -0.992115 0 0.00376991
-0.124345 0.484292 -1.47 0.24869 -0.968583 0 0.00376991
-0.184062 0.464888 -1.47 0.368125 -0.929776 0 0.00376991
-0.240877 0.438153 -1.47 0.481754 -0.876307 0 0.00376991
-0.293893 0.404508 -1.47 0.587785 -0.809017 0 0.00376991
-0.342274 0.364484 -1.47 0.684547 -0.728969 0 0.00376991
-0.385257 0.318712 -1.47 0.770513 -0.637424 0 0.00376991
-0.422164 0.267913 -1.47 0.844328 -0.535827 0 0.00376991
-0.452414 0.21289 -1.47 0.904827 -0.425779 0 0.00376991
-0.475528 0.154508 -1.47 0.951057 -0.309017 0 0.00376991
-0.491144 0.0936907 -1.47 0.982287 -0.187381 0 0.00376991
-0.499013 0.0313953 -1.47 0.998027 -0.0627905 0 0.00376991
-0.499013 -0.0313953 -1.47 0.998027 0.0627905 0 0.00376991
-0.491144 -0.0936907 -1.47 0.982287 0.187381 0 0.00376991
-0.475528 -0.154508 -1.47 0.951057 0.309017 0 0.00376991
-0.452414 -0.21289 -1.47 0.904827 0.425779 0 0.00376991
-0.422164 -0.267913 -1.47 0.844328 0.535827 0 0.00376991
-0.385257 -0.318712 -1.47 0.770513 0.637424 0 0.00376991
-0.342274 -0.364484 -1.47 0.684547 0.728969 0 0.00376991
-0.293893 -0.404508 -1.47 0.587785 0.809017 0 0.00376991
-0.240877 -0.438153 -1.47 0.481754 0.876307 0 0.00376991
-0.184062 -0.464888 -1.47 0.368125 0.929776 0 0.00376991
-0.124345 -0.484292 -1.47 0.24869 0.968583 0 0.00376991
-0.0626666 -0.496057 -1.47 0.125333 0.992115 0 0.00376991
-9.18485e-17 -0.5 -1.47 1.83697e-16 1 0 0.00376991
0.0626666 -0.496057 -1.47 -0.125333 0.992115 0 0.00376991
0.124345 -0.484292 -1.47 -0.24869 0.968583 0 0.00376991
0.184062 -0.464888 -1.47 -0.368125 0.929776 0 0.00376991
0.240877 -0.438153 -1.47 -0.481754 0.876307 0 0.00376991
0.293893 -0.404508 -1.47 -0.587785 0.809017 0 0.00376991
0.342274 -0.364484 -1.47 -0.684547 0.728969 0 0.00376991
0.385257 -0.318712 -1.47 -0.770513 0.637424 0 0.00376991
0.422164 -0.267913 -1.47 -0.844328 0.535827 0 0.00376991
0.452414 -0.21289 -1.47 -0.904827 0.425779 0 0.00376991
0.475528 -0.154508 -1.47 -0.951057 0.309017 0 0.00376991
0.491144 -0.0936907 -1.47 -0.982287 0.187381 0 0.00376991
0.499013 -0.0313953 -1.47 -0.998027 0.0627905 0 0.00376991
0.499013 0.0313953 -1.53 -0.998027 -0.0627905 0 0.00376991
0.491144 0.0936907 -1.53 -0.982287 -0.187381 0 0.00376991
0.475528 0.154508 -1.53 -0.951057 -0.309017 0 0.00376991
0.452414 0.21289 -1.53 -0.904827 -0.425779 0 0.00376991
0.422164 0.267913 -1.53 -0.844328 -0.535827 0 0.00376991
0.385257 0.318712 -1.53 -0.770513 -0.637424 0 0.00376991
0.342274 0.364484 -1.53 -0.684547 -0.728969 0 0.00376991
0.293893 0.404508 -1.53 -0.587785 -0.809017 0 0.00376991
0.240877 0.438153 -1.53 -0.481754 -0.876307 0 0.00376991
0.184062 0.464888 -1.53 -0.368125 -0.929776 0 0.00376991
0.124345 0.484292 -1.53 -0.24869 -0.968583 0 0.00376991
0.0626666 0.496057 -1.53 -0.125333 -0.992115 0 0.00376991
-8.04061e-17 0.5 -1.53 1.60812e-16 -1 0 0.00376991
-0.0626666 0.496057 -1.53 0.125333 -0.992115 0 0.00376991
-0.124345 0.484292 -1.53 0.24869 -0.968583 0 0.00376991
-0.184062 0.464888 -1.53 0.368125 -0.929776 0 0.00376991
-0.240877 0.438153 -1.53 0.481754 -0.876307 0 0.00376991
-0.293893 0.404508 -1.53 0.587785 -0.809017 0 0.00376991
-0.342274 0.364484 -1.53 0.684547 -0.728969 0 0.00376991
-0.385257 0.318712 -1.53 0.770513 -0.637424 0 0.00376991
-0.422164 0.267913 -1.53 0.844328 -0.535827 0 0.00376991
-0.452414 0.21289 -1.53 0.904827 -0.425779 0 0.00376991
-0.475528 0.154508 -1.53 0.951057 -0.309017 0 0.00376991
-0.491144 0.0936907 -1.53 0.982287 -0.187381 0 0.00376991
-0.499013 0.0313953 -1.53 0.998027 -0.0627905 0 0.00376991
-0.499013 -0.0313953 -1.53 0.998027 0.0627905 0 0.00376991
-0.491144 -0.0936907 -1.53 0.982287 0.187381 0 0.00376991
-0.475528 -0.154508 -1.53 0.951057 0.309017 0 0.00376991
-0.452414 -0.21289 -1.53 0.904827 0.425779 0 0.00376991
-0.422164 -0.267913 -1.53 0.844328 0.535827 0 0.00376991
-0.385257 -0.318712 -1.53 0.770513 0.637424 0 0.00376991
-0.342274 -0.364484 -1.53 0.684547 0.728969 0 0.00376991
-0.293893 -0.404508 -1.53 0.587785 0.809017 0 0.00376991
-0.240877 -0.438153 -1.53 0.481754 0.876307 0 0.00376991
-0.184062 -0.464888 -1.53 0.368125 0.929776 0 0.00376991
-0.124345 -0.484292 -1.53 0.24869 0.968583 0 0.00376991
-0.0626666 -0.496057 -1.53 0.125333 0.992115 0 0.00376991
-9.18485e-17 -0.5 -1.53 1.83697e-16 1 0 0.00376991
0.0626666 -0.496057 -1.53 -0.125333 0.992115 0 0.00376991
0.124345 -0.484292 -1.53 -0.24869 0.968583 0 0.00376991
0.184062 -0.464888 -1.53 -0.368125 0.929776 0 0.00376991
0.240877 -0.438153 -1.53 -0.481754 0.876307 0 0.00376991
0.293893 -0.404508 -1.53 -0.587785 0.809017 0 0.00376991
0.342274 -0.364484 -1.53 -0.684547 0.728969 0 0.00376991
0.385257 -0.318712 -1.53 -0.770513 0.637424 0 0.00376991
0.422164 -0.267913 -1.53 -0.844328 0.535827 0 0.00376991
0.452414 -0.21289 -1.53 -0.904827 0.425779 0 0.00376991
0.475528 -0.154508 -1.53 -0.951057 0.309017 0 0.00376991
0.491144 -0.0936907 -1.53 -0.982287 0.187381 0 0.00376991
0.499013 -0.0313953 -1.53 -0.998027 0.0627905 0 0.00376991
0.499013 0.0313953 -1.59 -0.998027 -0.0627905 0 0.00376991
0.491144 0.0936907 -1.59 -0.982287 -0.187381 0 0.00376991
0.475528 0.154508 -1.59 -0.951057 -0.309017 0 0.00376991
0.452414 0.21289 -1.59 -0.904827 -0.425779 0 0.00376991
0.422164 0.267913 -1.59 -0.844328 -0.535827 0 0.00376991
0.385257 0.318712 -1.59 -0.770513 -0.637424 0 0.00376991
0.342274 0.364484 -1.59 -0.684547 -0.728969 0 0.00376991
0.293893 0.404508 -1.59 -0.587785 -0.809017 0 0.00376991
0.240877 0.438153 -1.59 -0.481754 -0.876307 0 0.00376991
0.184062 0.464888 -1.59 -0.368125 -0.929776 0 0.00376991
0.124345 0.484292 -1.59 -0.24869 -0.968583 0 0.00376991
0.0626666 0.496057 -1.59 -0.125333 -0.992115 0 0.00376991
-8.04061e-17 0.5 -1.59 1.60812e-16 -1 0 0.00376991
-0.0626666 0.496057 -1.59 0.125333 -0.992115 0 0.00376991
-0.124345 0.484292 -1.59 0.24869 -0.968583 0 0.00376991
-0.184062 0.464888 -1.59 0.368125 -0.929776 0 0.00376991
-0.240877 0.438153 -1.59 0.481754 -0.876307 0 0.00376991
-0.293893 0.404508 -1.59 0.587785 -0.809017 0 0.00376991
-0.342274 0.364484 -1.59 0.684547 -0.728969 0 0.00376991
-0.385257 0.318712 -1.59 0.770513 -0.637424 0 0.00376991
-0.422164 0.267913 -1.59 0.844328 -0.535827 0 0.00376991
-0.452414 0.21289 -1.59 0.904827 -0.425779 0 0.00376991
-0.475528 0.154508 -1.59 0.951057 -0.309017 0 0.00376991
-0.491144 0.0936907 -1.59 0.982287 -0.187381 0 0.00376991
-0.499013 0.0313953 -1.59 0.998027 -0.0627905 0 0.00376991
-0.499013 -0.0313953 -1.59 0.998027 0.0627905 0 0.00376991
-0.491144 -0.0936907 -1.59 0.982287 0.187381 0 0.00376991
-0.475528 -0.154508 -1.59 0.951057 0.309017 0 0.00376991
-0.452414 -0.21289 -1.59 0.904827 0.425779 0 0.00376991
-0.422164 -0.267913 -1.59 0.844328 0.535827 0 0.00376991
-0.385257 -0.318712 -1.59 0.770513 0.637424 0 0.00376991
-0.342274 -0.364484 -1.59 0.684547 0.728969 0 0.00376991
-0.293893 -0.404508 -1.59 0.587785 0.809017 0 0.00376991
-0.240877 -0.438153 -1.59 0.481754 0.876307 0 0.00376991
-0.184062 -0.464888 -1.59 0.368125 0.929776 0 0.00376991
-0.124345 -0.484292 -1.59 0.24869 0.968583 0 0.00376991
-0.0626666 -0.496057 -1.59 0.125333 0.992115 0 0.00376991
-9.18485e-17 -0.5 -1.59 1.83697e-16 1 0 0.00376991
0.0626666 -0.496057 -1.59 -0.125333 0.992115 0 0.00376991
0.124345 -0.484292 -1.59 -0.24869 0.968583 0 0.00376991
0.184062 -0.464888 -1.59 -0.368125 0.929776 0 0.00376991
0.240877 -0.438153 -1.59 -0.481754 0.876307 0 0.00376991
0.293893 -0.404508 -1.59 -0.587785 0.809017 0 0.00376991
0.342274 -0.364484 -1.59 -0.684547 0.728969 0 0.00376991
0.385257 -0.318712 -1.59 -0.770513 0.637424 0 0.00376991
0.422164 -0.267913 -1.59 -0.844328 0.535827 0 0.00376991
0.452414 -0.21289 -1.59 -0.904827 0.425779 0 0.00376991
0.475528 -0.154508 -1.59 -0.951057 0.309017 0 0.00376991
0.491144 -0.0936907 -1.59 -0.982287 0.187381 0 0.00376991
0.499013 -0.0313953 -1.59 -0.998027 0.0627905 0 0.00376991
0.499013 0.0313953 -1.65 -0.998027 -0.0627905 0 0.00376991
0.491144 0.0936907 -1.65 -0.982287 -0.187381 0 0.00376991
0.475528 0.154508 -1.65 -0.951057 -0.309017 0 0.00376991
0.452414 0.21289 -1.65 -0.904827 -0.425779 0 0.00376991
0.422164 0.267913 -1.65 -0.844328 -0.535827 0 0.00376991
0.385257 0.318712 -1.65 -0.770513 -0.637424 0 0.00376991
0.342274 0.364484 -1.65 -0.684547 -0.728969 0 0.00376991
0.293893 0.404508 -1.65 -0.587785 -0.809017 0 0.00376991
